ply
format ascii 1.0
comment VCGLIB generated
element vertex 1660
property float x
property float y
property float z
element face 0
property list uchar int vertex_indices
end_header
-44.63331 86.41658 -42.03951 
-45.52131 86.49359 -39.50051 
-45.9833 86.49359 -38.23851 
-46.4733 86.46059 -36.97851 
-41.48331 82.16659 -39.67651 
-42.0853 82.75658 -38.25351 
-41.6383 82.15759 -38.67651 
-41.8783 81.95859 -36.75151 
-40.88231 80.61958 -37.67351 
-41.29031 81.04258 -36.53551 
-41.1623 80.61758 -35.67051 
-41.6413 81.24959 -35.23051 
-41.3103 80.61259 -34.67351 
-42.0173 81.44059 -33.92751 
-41.5253 80.66159 -33.65951 
-41.7763 80.66959 -32.41551 
-40.70831 79.06358 -32.67051 
-40.87631 79.04659 -31.67351 
-40.1083 77.50859 -31.66651 
-40.25531 77.50558 -30.66651 
-39.6873 75.93458 -30.66851 
-39.8013 75.94659 -29.66551 
-39.5433 74.36559 -29.66851 
-39.5643 74.36259 -28.66851 
-39.50731 72.79958 -28.66551 
-39.5703 74.35959 -27.67151 
-39.4173 72.79559 -27.66951 
-39.52731 72.80058 -26.66651 
-39.51431 71.24059 -27.66151 
-39.5123 71.24459 -26.66151 
-39.7833 69.67858 -27.65951 
-39.7733 69.68159 -26.65851 
-40.1893 68.11159 -26.65951 
-39.7753 69.68459 -25.65651 
-40.1803 68.11459 -25.65551 
-40.0793 68.12859 -24.65751 
-40.4843 66.55658 -24.65551 
-40.1833 68.11858 -23.65651 
-40.4573 66.55059 -23.65751 
-40.4473 66.55558 -22.65451 
-40.8513 64.97159 -22.65951 
-40.6913 64.97558 -21.65851 
-39.5423 71.24259 -28.66451 
-39.3983 72.79459 -29.66451 
-39.6433 71.23559 -29.66151 
-39.6473 71.23158 -30.66151 
-39.9343 69.67159 -30.66351 
-39.7623 71.22459 -31.66551 
-39.9613 69.67159 -31.66051 
-39.7733 71.22058 -32.66751 
-40.0493 69.65359 -32.66651 
-39.7833 71.22258 -33.66651 
-39.5513 72.78859 -33.66451 
-39.5333 72.78859 -32.66851 
-39.4043 74.36259 -32.66651 
-39.5283 74.36358 -31.66551 
-39.5363 75.93659 -32.66851 
-39.66031 75.94158 -31.66551 
-39.9683 77.50759 -32.66651 
-39.52031 72.79059 -31.66751 
-39.40331 72.79358 -30.66751 
-39.4003 74.36358 -33.66751 
-39.4343 74.36259 -30.66851 
-39.8973 69.67058 -28.66151 
-39.90831 69.67058 -29.65951 
-40.3203 68.09159 -30.66051 
-40.4073 68.07758 -31.66651 
-40.5663 68.05959 -32.67851 
-41.0293 66.42858 -30.68151 
-40.6643 66.81559 -29.33751 
-40.2823 68.0826 -29.66351 
-40.2033 68.10758 -28.65851 
-40.2843 68.09159 -27.65951 
-40.6313 66.54259 -27.65751 
-40.5543 66.52958 -25.65751 
-42.25031 82.14859 -35.44851 
-42.6193 82.34458 -34.14551 
-42.40131 81.56158 -32.63651 
-43.0483 82.42658 -32.86651 
-42.8363 81.63958 -31.35551 
-43.48031 82.50559 -31.58751 
-43.2763 81.70859 -30.08051 
-43.9523 82.4866 -30.32851 
-44.46431 82.38859 -29.08151 
-45.1973 83.05258 -29.35151 
-45.7323 82.91658 -28.11551 
-46.4953 83.51158 -28.39451 
-47.08131 83.26458 -27.18051 
-47.89431 83.76158 -27.47951 
-47.6643 83.03259 -25.96251 
-48.4763 83.52459 -26.26051 
-48.2943 82.71358 -24.75151 
-49.1653 83.09858 -25.06951 
-48.9763 82.30559 -23.55451 
-49.9913 82.52759 -23.88551 
-49.6673 81.85858 -22.37551 
-50.77031 81.83958 -22.75951 
-50.4923 81.10658 -21.12351 
-52.0523 81.50158 -23.20951 
-51.4613 81.10959 -21.80751 
-52.5463 81.20558 -23.24251 
-52.8803 80.53558 -22.28651 
-53.3733 80.53458 -22.99851 
-54.3683 79.11759 -22.15051 
-54.6883 79.08658 -23.21951 
-55.1963 77.67158 -22.64951 
-55.4583 77.65759 -23.79751 
-55.45031 77.07759 -23.00151 
-55.67031 77.05859 -24.00551 
-55.77631 75.6516 -23.00251 
-55.9033 75.64158 -24.00551 
-55.8693 74.23859 -23.00251 
-55.9493 74.23859 -24.00051 
-55.5633 72.86359 -22.98451 
-55.38131 72.83459 -23.99851 
-54.51431 71.46058 -22.98651 
-53.5883 71.43358 -24.00151 
-52.7703 69.98158 -22.97951 
-52.5943 70.05458 -23.97851 
-52.8583 71.42558 -24.99851 
-53.9453 72.81359 -26.00451 
-55.0863 74.24458 -26.98551 
-55.7813 75.62859 -28.00351 
-56.3013 76.97258 -29.04351 
-56.42831 78.41558 -30.02351 
-56.34631 79.81459 -31.03051 
-56.1363 81.22059 -32.03351 
-55.89531 81.79558 -31.97551 
-55.3233 83.24258 -32.61951 
-54.5473 84.67958 -33.45151 
-54.7783 72.82858 -25.00051 
-55.5703 74.22059 -26.00551 
-56.0173 75.63859 -26.99751 
-56.2323 77.02159 -28.01751 
-56.2373 78.42358 -29.01951 
-56.1243 79.82459 -30.02851 
-55.8803 81.22558 -31.03351 
-55.83231 74.23358 -24.99851 
-56.1453 75.63859 -26.00451 
-56.1143 77.02858 -27.01451 
-56.0273 78.43258 -28.01751 
-55.8833 79.83259 -29.02551 
-55.5583 81.25559 -30.02351 
-55.5623 81.82059 -30.91051 
-54.9593 83.25259 -31.56351 
-53.9133 84.78459 -32.57451 
-52.6153 85.33659 -32.07351 
-51.3463 85.69058 -31.61251 
-50.25031 85.76559 -31.19651 
-49.2553 85.59858 -30.83151 
-48.3773 85.17358 -30.52651 
-47.5103 84.78158 -30.20851 
-46.97131 84.93459 -31.43851 
-46.69131 84.29559 -29.91451 
-46.1603 84.43258 -31.14251 
-45.4363 83.76058 -30.87251 
-44.8973 83.9006 -32.11051 
-44.1743 83.2206 -31.84451 
-43.7123 83.2216 -33.10951 
-45.6403 84.54858 -32.38351 
-44.4203 83.92059 -33.36751 
-43.2653 83.15659 -34.38251 
-42.8673 83.04358 -35.66951 
-42.4783 82.92959 -36.95651 
-56.0113 75.63359 -25.00751 
-55.9953 77.03558 -26.01251 
-55.8693 78.43759 -27.01951 
-55.57831 79.86859 -28.01351 
-55.4043 80.40159 -28.14751 
-54.8203 81.89059 -28.85651 
-55.2193 81.83958 -29.84351 
-54.0383 83.32058 -29.68551 
-54.5513 83.28959 -30.58051 
-53.5473 84.31559 -31.01451 
-52.2743 84.86258 -30.50051 
-51.0153 85.21459 -30.03351 
-49.94431 85.10859 -29.67251 
-49.0143 84.83658 -29.32851 
-48.13831 84.46758 -29.00251 
-47.2663 84.08559 -28.68751 
-45.9243 83.71959 -29.62251 
-44.6633 83.18559 -30.58851 
-48.7253 84.22559 -27.78951 
-49.4073 83.80859 -26.59651 
-50.1573 83.29358 -25.42251 
-51.0153 82.52359 -24.30251 
-49.64931 84.51059 -28.12551 
-50.4173 84.01459 -26.93151 
-51.3313 83.1666 -25.82751 
-52.3253 82.06559 -24.77851 
-50.70531 84.62358 -28.48751 
-51.6263 83.77958 -27.37451 
-52.5523 82.74559 -26.31251 
-53.5003 81.09859 -24.23451 
-51.98631 84.28159 -28.94051 
-52.86431 83.34858 -27.87151 
-53.5493 82.66259 -27.45751 
-54.6403 81.18058 -27.02151 
-54.4553 81.89859 -27.79951 
-55.0723 80.47258 -27.14151 
-53.5563 83.28659 -28.73651 
-53.2043 83.83258 -29.44151 
-54.4413 80.49559 -24.93351 
-54.01231 80.51259 -23.95651 
-55.03231 79.0696 -24.28051 
-55.8633 77.04159 -25.01251 
-55.6283 78.44358 -26.01951 
-55.3773 79.83958 -27.03151 
-55.0613 79.87159 -26.01951 
-52.8993 68.66159 -21.98551 
-53.0593 70.01859 -22.01251 
-52.9043 68.67259 -20.98051 
-53.6093 69.96559 -20.98851 
-52.8853 68.67758 -19.97751 
-54.3733 70.09759 -19.97751 
-53.1063 68.65759 -18.99351 
-54.7163 70.14259 -18.97651 
-53.3583 68.52659 -17.96651 
-54.8973 70.08759 -17.98151 
-53.8763 68.60458 -16.98651 
-54.92231 70.08258 -16.98051 
-54.2223 68.72059 -15.96951 
-55.02231 70.09759 -15.97651 
-54.2933 68.73358 -14.96551 
-55.0153 70.10958 -14.97751 
-54.5253 68.74059 -13.96651 
-54.9183 70.11559 -13.97451 
-54.6943 68.7356 -12.96951 
-54.9193 70.12459 -12.97551 
-54.8563 68.73959 -11.96951 
-54.81131 70.13159 -11.97551 
-54.7453 70.13259 -10.97851 
-54.5913 71.54159 -11.97051 
-54.4403 71.54358 -10.97551 
-54.4363 72.17658 -11.98351 
-54.1793 72.19759 -10.85451 
-53.6163 73.60359 -11.47051 
-53.90331 72.21659 -9.71951 
-52.6043 73.96958 -10.36551 
-52.32231 73.38559 -8.787509 
-51.2663 74.61559 -9.84451 
-50.9743 74.02458 -8.273509 
-50.0413 74.87359 -9.412509 
-49.7813 74.08459 -7.904509 
-48.97831 74.74459 -9.073509 
-48.7963 73.94759 -7.53651 
-48.1123 74.41659 -8.733509 
-47.92631 73.54459 -7.228509 
-47.3243 73.80959 -8.45651 
-46.5323 73.27759 -8.17851 
-45.9783 73.4286 -9.42851 
-45.3173 72.63658 -9.17651 
-44.7873 72.77558 -10.43451 
-44.1163 71.97159 -10.18051 
-43.5393 72.19458 -11.41951 
-43.0153 71.10258 -11.21851 
-43.0713 72.13859 -12.68851 
-42.5233 71.12959 -12.48251 
-42.0233 71.15259 -13.74951 
-41.5263 70.04359 -13.56051 
-41.52031 71.18359 -15.01951 
-40.9973 69.65858 -14.67451 
-41.2693 71.20959 -15.67351 
-40.76631 69.57458 -15.64051 
-40.9673 71.22358 -16.66851 
-40.5223 69.68259 -16.66351 
-40.6953 71.22358 -17.67151 
-40.3653 69.69159 -17.65951 
-40.4183 71.22659 -18.67351 
-40.2313 69.68958 -18.66051 
-40.2473 71.23959 -19.66551 
-39.9593 69.69059 -19.66451 
-39.9763 71.23959 -20.66651 
-39.9453 69.69259 -20.66151 
-39.9353 71.24659 -21.66151 
-39.80531 69.69359 -21.66251 
-39.7883 69.69159 -22.66151 
-39.9673 68.13658 -21.65851 
-40.0813 68.13159 -22.65951 
-40.3413 66.57059 -21.65551 
-39.7813 69.69059 -23.66051 
-39.66031 71.24858 -22.66051 
-39.9613 72.79559 -22.66451 
-40.1223 72.78759 -21.67251 
-40.5333 74.35859 -22.66451 
-40.8243 74.35258 -21.66651 
-41.2543 75.56458 -22.15251 
-41.1993 74.45558 -20.66851 
-41.7753 75.45259 -20.89951 
-42.2953 75.33959 -19.64451 
-42.8873 76.31459 -19.86851 
-43.4233 76.18858 -18.62351 
-44.0163 77.10059 -18.83851 
-44.5493 76.97958 -17.59151 
-45.2113 77.76859 -17.83751 
-45.80531 77.53358 -16.61551 
-46.5253 78.21659 -16.88251 
-47.1613 77.88759 -15.67051 
-47.9843 78.36058 -15.97551 
-47.8433 77.47459 -14.46251 
-48.6753 77.91259 -14.78851 
-48.54631 77.03059 -13.27051 
-49.48431 77.32559 -13.59851 
-49.31831 76.50059 -12.09351 
-50.4363 76.54259 -12.43551 
-50.2363 75.65459 -10.95051 
-51.5123 75.31958 -11.39151 
-49.1653 75.58759 -10.58051 
-48.40931 76.13358 -11.76551 
-47.7103 76.57359 -12.95851 
-47.0343 76.96458 -14.18051 
-46.3903 77.30358 -15.38751 
-45.7233 76.51559 -15.13551 
-45.1493 76.73358 -16.37151 
-44.4813 75.94659 -16.12151 
-43.9513 76.06659 -17.37051 
-43.3193 75.18958 -17.13651 
-42.80531 75.23658 -18.38851 
-42.1653 74.48859 -18.15551 
-41.69831 74.49659 -19.42851 
-41.6073 73.41658 -17.94551 
-41.1883 73.32059 -19.24051 
-41.0843 72.78859 -18.66151 
-40.69731 72.77458 -19.67151 
-41.2983 72.74658 -17.68351 
-41.5633 72.30159 -16.48351 
-42.0913 73.39658 -16.67751 
-42.0313 72.29459 -15.20651 
-42.53531 73.47358 -15.39751 
-43.0613 73.35659 -14.14251 
-43.7113 74.16258 -14.38251 
-44.29831 73.93258 -13.14751 
-44.90931 74.83358 -13.37651 
-45.5003 74.60159 -12.14851 
-46.1803 75.37358 -12.40751 
-46.8033 75.06659 -11.17851 
-47.5363 75.71559 -11.46351 
-48.2783 75.20058 -10.27051 
-46.9283 75.99958 -12.66751 
-46.3073 76.29059 -13.90451 
-45.5983 75.59158 -13.64351 
-45.0463 75.74759 -14.87651 
-44.38231 74.94859 -14.63351 
-43.8473 75.07559 -15.88251 
-43.1903 74.27258 -15.63851 
-42.6523 74.39958 -16.88851 
-40.5023 72.79858 -20.65651 
-47.4013 74.81559 -9.955509 
-46.0933 74.36259 -10.91951 
-44.8483 73.79759 -11.90751 
-43.63731 73.13559 -12.90651 
-42.5323 72.26559 -13.94151 
-44.2253 72.91058 -11.67151 
-45.3903 73.65658 -10.66251 
-46.6753 74.14559 -9.68051 
-39.7763 69.68559 -24.65951 
-39.65131 71.24659 -23.65951 
-39.6363 71.25058 -24.66051 
-39.6613 72.80158 -24.66351 
-39.5183 71.24559 -25.66251 
-39.54831 72.79759 -25.66851 
-39.8033 72.80158 -23.66551 
-40.2443 74.36458 -23.66351 
-41.0253 75.97559 -23.63951 
-41.2733 75.90659 -22.67551 
-41.36831 76.49558 -23.63651 
-41.8413 76.48159 -22.36651 
-42.4183 77.47159 -22.57751 
-42.94831 77.35259 -21.33251 
-43.5563 78.25758 -21.55451 
-44.08331 78.13359 -20.30851 
-44.7543 78.92658 -20.55351 
-45.32231 78.74859 -19.33251 
-46.0693 79.35858 -19.60451 
-46.6513 79.14158 -18.37451 
-47.4823 79.60658 -18.68151 
-47.2943 78.79359 -17.17051 
-48.1713 79.16559 -17.49151 
-48.8623 78.72259 -16.30551 
-49.67231 78.12559 -15.11651 
-50.5973 77.28558 -13.99051 
-51.6863 76.11259 -12.92051 
-52.7743 75.00658 -12.35651 
-45.8903 78.54358 -18.09651 
-44.6213 78.00858 -19.06351 
-43.4823 77.22659 -20.08351 
-42.34731 76.44359 -21.11151 
-39.9743 74.36159 -24.66651 
-40.5293 75.93458 -24.66451 
-40.89631 76.50759 -24.90351 
-41.92931 77.49959 -23.83951 
-43.0233 78.37559 -22.79951 
-44.1843 79.13659 -21.78751 
-45.4883 79.59058 -20.82951 
-46.8463 79.93658 -19.88951 
-47.6713 80.40659 -20.19851 
-48.35831 79.97259 -19.00651 
-48.5453 80.79259 -20.51551 
-49.2383 80.31658 -19.34351 
-49.4523 81.03459 -20.81751 
-50.4403 79.60758 -18.15551 
-51.4893 79.65358 -19.07751 
-52.4893 79.61858 -20.03651 
-53.93031 79.13659 -21.17851 
-54.9743 77.70959 -21.48751 
-55.30331 77.07859 -22.00351 
-55.6503 75.66159 -22.00151 
-55.7733 74.24558 -21.99951 
-55.7143 72.85858 -21.99351 
-54.9273 71.47858 -21.98451 
-55.2083 71.48259 -20.98251 
-55.7323 72.86059 -20.99251 
-55.66531 74.25559 -20.99551 
-55.4603 75.67858 -20.99351 
-55.0883 76.29258 -19.87951 
-54.64131 77.73859 -20.42251 
-54.2673 77.73258 -19.37451 
-53.3933 79.12959 -20.30951 
-52.7893 79.14559 -19.50851 
-55.35331 71.47659 -19.98551 
-55.6543 72.8596 -19.99151 
-55.5573 74.26258 -19.99351 
-55.23831 75.69458 -19.98751 
-54.85231 76.32658 -18.74451 
-53.8293 77.75159 -18.41351 
-52.49331 78.12459 -17.33151 
-51.4763 78.14259 -16.25051 
-49.8663 78.91359 -16.64951 
-49.04831 79.50959 -17.82751 
-50.7853 78.08958 -15.51251 
-51.8663 76.90858 -14.44951 
-53.02131 75.47458 -13.44251 
-53.38731 74.98659 -13.14951 
-54.0423 73.57059 -12.44251 
-54.3913 73.54959 -13.48951 
-54.69631 72.15559 -13.11851 
-54.8963 72.14559 -14.33151 
-54.97231 70.74659 -14.21151 
-55.05931 71.50558 -14.97851 
-54.8733 70.7646 -12.91151 
-52.2063 77.57259 -15.97451 
-53.18531 76.25759 -14.97851 
-53.8503 75.01859 -14.08351 
-55.4013 71.47058 -18.98751 
-55.52831 72.87059 -18.99051 
-55.4283 72.88158 -17.98451 
-55.42331 74.27258 -18.99051 
-55.2183 74.28858 -17.98251 
-55.1673 74.90759 -18.37051 
-54.9613 74.91558 -17.16451 
-54.4913 76.33759 -17.69851 
-54.1513 76.36359 -16.65051 
-52.6633 77.72759 -16.77551 
-53.6303 76.3866 -15.77251 
-54.2503 74.93659 -15.08451 
-54.6673 73.53558 -14.61851 
-54.64631 74.94659 -16.11151 
-54.9413 73.52059 -15.74451 
-55.0933 72.1246 -15.54251 
-55.2083 73.50958 -16.87351 
-55.3013 72.8866 -16.98251 
-55.2163 71.48058 -16.97751 
-55.3923 71.48259 -17.98351 
-55.3843 74.88159 -19.50651 
-48.6673 81.55458 -21.99651 
-48.09631 81.92759 -23.23451 
-47.4283 82.30659 -24.44151 
-46.8853 82.47159 -25.66751 
-46.2793 82.76359 -26.88051 
-45.4983 82.19559 -26.59751 
-44.9803 82.30859 -27.83951 
-44.2193 81.68259 -27.55451 
-43.7463 81.69759 -28.81651 
-43.08231 80.90559 -28.57351 
-42.6533 80.82359 -29.85551 
-42.2093 80.81459 -31.12951 
-47.7833 81.16359 -21.66851 
-47.23731 81.52659 -22.91951 
-46.6473 81.75658 -24.14351 
-46.0633 81.99159 -25.36651 
-45.29531 81.41559 -25.07851 
-44.7503 81.56358 -26.31151 
-44.0353 80.86959 -26.05051 
-43.5473 80.90059 -27.30851 
-42.8763 80.11458 -27.06251 
-42.4173 80.11358 -28.32951 
-42.2113 79.31859 -26.81751 
-41.7973 79.22358 -28.10651 
-41.6053 78.41759 -26.59851 
-41.20831 78.23959 -27.89951 
-41.0183 77.44859 -26.53451 
-40.7273 77.47459 -27.67551 
-40.1003 75.93859 -26.66651 
-40.06231 75.95358 -27.65851 
-39.6783 74.36759 -26.66751 
-39.8133 74.37058 -25.66451 
-40.4333 75.98659 -25.64251 
-41.4623 77.50658 -25.10751 
-42.04831 78.42759 -25.32451 
-42.6813 79.30859 -25.55251 
-43.17731 79.27559 -24.29651 
-43.34731 80.10358 -25.79751 
-43.81231 80.14359 -24.53051 
-44.53231 80.82258 -24.79851 
-45.8653 81.20259 -23.85151 
-42.5273 78.41158 -24.05751 
-43.6573 79.25459 -23.03151 
-44.8993 79.82459 -22.04951 
-46.2173 80.24859 -21.10551 
-47.0343 80.73559 -21.40751 
-44.32631 80.03858 -23.28351 
-45.67131 80.40459 -22.33551 
-45.0943 80.62058 -23.56551 
-46.4543 80.96458 -22.62851 
-40.0853 68.13658 -20.65751 
-40.3443 66.57359 -20.65351 
-40.6263 64.96658 -20.66551 
-40.5493 64.99059 -19.66051 
-40.4343 65.05759 -18.64051 
-40.8653 63.37159 -18.68451 
-40.6713 63.42358 -17.66351 
-40.8223 62.80858 -17.67351 
-40.6453 63.43559 -16.66151 
-40.9313 61.81859 -15.94151 
-40.4803 63.47058 -15.65151 
-40.89931 61.83859 -15.67051 
-40.78531 61.88158 -14.65651 
-41.0583 60.83958 -14.19951 
-40.68031 61.89259 -13.65751 
-41.0423 60.30359 -12.70951 
-40.54631 61.91159 -12.66051 
-40.4223 61.92458 -11.66051 
-40.3093 63.47858 -12.65351 
-40.3103 63.48159 -11.65451 
-40.3713 65.02859 -12.65551 
-40.4653 65.03559 -11.65251 
-40.62831 66.58258 -12.65251 
-40.72031 66.59559 -11.64951 
-40.9943 67.80759 -11.90851 
-40.8783 66.97659 -10.39351 
-41.3673 68.08659 -10.58451 
-41.17931 67.28359 -9.055511 
-41.6833 68.38358 -9.251509 
-41.4673 67.66459 -7.69751 
-42.0403 68.58759 -7.936509 
-42.4143 68.82759 -6.58651 
-42.7083 69.37759 -8.18651 
-43.1173 69.52559 -6.866509 
-43.3743 70.16558 -8.439509 
-43.78831 70.31059 -7.125509 
-43.9613 71.13559 -8.665509 
-44.4693 71.04159 -7.390509 
-45.1243 71.84359 -7.638509 
-45.6553 71.72959 -6.37051 
-46.44431 72.38758 -6.715509 
-46.9183 72.27858 -5.38151 
-47.7503 72.70958 -5.705509 
-47.4553 72.1526 -4.116509 
-48.33131 72.52959 -4.43551 
-48.0383 71.94559 -2.85851 
-48.9753 72.21159 -3.201509 
-48.63031 71.74059 -1.60851 
-49.61831 71.87059 -1.96851 
-49.1703 71.61758 -0.3405095 
-50.26431 71.53259 -0.7365094 
-49.6563 71.57559 0.9444906 
-50.7483 71.49758 0.5524904 
-50.1373 71.56258 2.228491 
-51.2323 71.48958 1.83849 
-50.6253 71.5826 3.51349 
-51.7823 71.44358 3.102491 
-52.21231 71.51558 4.40949 
-53.36031 71.32959 4.00249 
-53.85231 71.35559 5.287491 
-54.55931 71.03259 3.586491 
-55.05531 71.06658 4.865491 
-56.3143 70.69559 4.42649 
-56.6843 70.86659 5.75749 
-58.06831 70.32059 5.27749 
-58.50431 70.42759 6.584491 
-59.8213 69.94959 6.13049 
-60.2473 70.02459 7.443491 
-61.70531 69.39959 6.93949 
-62.0763 69.58359 8.27449 
-63.6353 68.71059 7.745491 
-60.6783 70.10559 8.757491 
-59.3623 70.58958 9.206491 
-58.1053 70.97959 9.64249 
-56.8353 71.32959 10.07949 
-55.6353 71.62558 10.49549 
-54.4203 71.86459 10.91649 
-53.26931 72.05359 11.31949 
-52.11131 72.17059 11.72249 
-51.0663 72.11759 12.09349 
-49.9093 72.22559 12.49849 
-48.8113 72.25658 12.88249 
-47.7143 72.29859 13.27049 
-46.6683 72.28259 13.64049 
-45.6263 72.22958 14.01249 
-44.5293 72.2626 14.40049 
-43.4833 72.20258 14.76749 
-42.44331 72.1246 15.13949 
-41.40131 72.06059 15.50749 
-40.40931 71.97459 15.86149 
-39.3633 71.96558 16.23449 
-38.4213 71.72858 16.57449 
-37.4823 71.47659 16.91249 
-36.4993 71.28658 17.26549 
-35.5693 71.00958 17.59949 
-34.6553 70.71358 17.92849 
-33.7983 70.24459 18.23149 
-33.0093 69.72659 18.53749 
-32.3503 68.92458 18.79549 
-31.7893 67.99558 19.02849 
-31.3373 66.81158 19.32949 
-31.1363 65.25258 19.31249 
-31.2263 63.70758 19.32849 
-30.9703 63.71359 18.32249 
-31.1683 62.17558 18.32249 
-30.9673 62.18158 17.31749 
-30.9823 60.62359 18.31949 
-30.8453 60.62659 17.31849 
-30.7653 59.10159 18.33949 
-30.6323 59.10259 17.33749 
-30.5483 57.54659 18.32249 
-30.3173 57.53059 17.30549 
-30.1133 56.01559 18.32249 
-29.6063 55.99759 17.29649 
-29.2123 54.44459 18.28749 
-28.7793 54.46059 17.28749 
-27.9983 52.97459 17.31349 
-28.4233 54.50859 16.31449 
-27.6243 52.95659 16.29749 
-28.0383 54.49959 15.30149 
-27.3323 52.97359 15.30149 
-27.7653 54.50458 14.29949 
-27.1223 53.01759 14.32149 
-27.5743 54.53258 13.31649 
-26.8603 53.01159 13.31449 
-27.3103 54.53258 12.31249 
-26.6173 52.99959 12.30949 
-27.1413 54.54659 11.31849 
-26.4473 53.01959 11.31549 
-26.8933 54.54058 10.31249 
-26.2873 53.03059 10.31749 
-26.7373 54.55058 9.315491 
-26.1643 53.02759 9.318491 
-26.6163 54.54659 8.31449 
-26.1433 53.03659 8.31849 
-26.2353 53.05358 7.317491 
-25.6693 51.53758 7.316491 
-25.7473 51.49759 6.321491 
-25.2393 50.57058 7.15949 
-25.0413 49.97358 6.32249 
-24.6613 49.58559 7.375491 
-24.4633 49.12958 6.015491 
-24.0653 48.68359 7.61249 
-23.8383 48.24459 6.248491 
-23.4513 47.85559 7.86849 
-23.2043 47.36959 6.482491 
-22.8243 46.97559 8.10149 
-22.53131 46.58959 6.73449 
-22.1683 46.13658 8.34549 
-21.8353 45.85459 6.98949 
-21.4523 45.47159 8.633491 
-21.0273 45.37358 7.301491 
-20.1713 44.98159 7.62449 
-19.7393 44.90558 6.30349 
-18.8103 44.64159 6.64949 
-18.3273 44.63659 5.34749 
-17.8293 44.46458 7.007491 
-17.3433 44.47458 5.70849 
-16.8913 44.23759 7.35149 
-16.4043 44.25659 6.05249 
-15.4643 44.01859 6.39649 
-15.9203 44.24559 4.753491 
-14.9803 43.99759 5.09649 
-14.5533 43.87658 3.78249 
-13.6133 43.63459 4.125491 
-13.2333 43.43458 2.790491 
-12.3013 43.16058 3.136491 
-11.9293 42.93858 1.814491 
-11.0523 42.56659 2.13849 
-10.6833 42.34459 0.8174903 
-9.794302 42.00959 1.138491 
-9.469304 41.71159 -0.2045096 
-8.538304 41.46058 0.1364904 
-8.175303 41.18659 -1.176509 
-7.234303 41.00858 -0.8455096 
-6.809304 40.81759 -2.12851 
-5.823303 40.76159 -1.785509 
-5.388303 40.58459 -3.070509 
-4.244303 40.76059 -2.65251 
-4.777303 40.46159 -3.610509 
-3.860302 40.53059 -3.964509 
-4.429303 39.97459 -5.24351 
-2.160303 40.72758 -4.780509 
-3.288303 40.14759 -5.434509 
-2.153303 40.34059 -5.63351 
-2.987303 39.66758 -6.995509 
-1.839303 39.81858 -7.17851 
-2.738302 39.18859 -8.48951 
-1.591302 39.33158 -8.671509 
-2.523303 38.60859 -9.894509 
-1.377303 38.75758 -10.07551 
-2.396302 37.95159 -11.15951 
-1.254303 38.09759 -11.34051 
-2.218302 37.28759 -12.47351 
-1.078304 37.43958 -12.65651 
-2.046304 36.63759 -13.80551 
-0.9473041 36.73159 -13.91251 
-1.950303 35.84859 -14.97751 
-0.8473024 35.92958 -15.07651 
-1.891304 34.96358 -16.05251 
-0.7863026 35.02458 -16.13651 
-1.868304 33.99159 -17.03351 
-0.8053035 33.99359 -17.04551 
-0.8253027 32.96159 -17.95751 
0.2166964 33.95559 -16.99951 
0.2406966 32.93459 -17.94051 
1.279697 33.92559 -16.98551 
1.304697 32.94258 -17.95751 
2.344698 33.93659 -17.00151 
2.442697 33.09859 -18.13751 
3.475698 34.11459 -17.19651 
3.620697 33.35059 -18.41051 
4.657697 34.34559 -17.46051 
4.760697 33.51258 -18.59651 
5.803697 34.48558 -17.62751 
5.902697 33.66058 -18.76951 
6.944696 34.63858 -17.80851 
7.002697 33.74859 -18.87251 
7.999697 34.67958 -17.85151 
8.061697 33.78659 -18.91751 
9.147697 34.81258 -18.01451 
9.125696 33.80459 -18.94251 
10.1867 33.82259 -18.97151 
10.1747 32.73658 -19.82051 
11.2377 32.73759 -19.82751 
11.0987 31.50658 -20.51851 
12.1607 31.51159 -20.52451 
12.1067 30.36559 -21.30051 
13.1677 30.37158 -21.30951 
12.1127 29.43359 -22.30251 
13.2677 29.56659 -22.45951 
12.2237 28.59059 -23.42151 
13.3577 28.78059 -23.62851 
13.3917 27.77658 -24.56551 
14.4607 28.87759 -23.72951 
14.4877 27.88459 -24.68451 
15.5687 28.92458 -23.79551 
15.5907 27.92759 -24.73351 
16.5927 28.87759 -23.74251 
16.6127 27.89459 -24.70051 
17.6157 28.79759 -23.66251 
17.6367 27.83459 -24.63951 
18.6007 28.66159 -23.51951 
18.6237 27.70259 -24.49851 
19.6237 28.56759 -23.41651 
19.6057 27.54159 -24.32451 
20.5537 27.33158 -24.10851 
19.5387 26.40659 -25.10551 
20.4857 26.18559 -24.86151 
20.3387 24.90859 -25.48651 
21.3977 25.90359 -24.57151 
21.2567 24.62359 -25.19551 
22.3437 25.67959 -24.32851 
22.1627 24.32559 -24.87651 
23.1917 24.65358 -24.47051 
23.1127 24.10658 -24.64451 
24.0997 23.96259 -24.48951 
23.8887 22.55059 -25.00651 
25.1957 23.22058 -24.46351 
24.8777 22.41359 -24.87251 
25.8987 22.34459 -24.79651 
25.7977 21.12959 -25.46951 
27.2017 21.81259 -24.95751 
26.7867 21.00359 -25.35951 
27.2087 20.40759 -25.48351 
26.5647 19.55759 -25.78851 
27.2167 18.97759 -25.72651 
26.2197 18.98859 -25.87351 
26.1657 17.76159 -25.92151 
25.2237 19.00359 -26.03451 
25.2237 17.98958 -26.18051 
24.2147 18.99858 -26.23051 
24.2237 17.57959 -26.49251 
23.2187 19.00458 -26.37651 
23.2157 17.57259 -26.69851 
22.2117 19.00458 -26.58851 
22.2177 17.58259 -26.84351 
21.3117 18.61858 -26.79451 
20.9527 16.90458 -27.03351 
20.2617 18.62758 -26.86751 
19.9287 16.95959 -27.08151 
18.9017 17.02659 -27.15451 
19.9057 15.90358 -27.96051 
18.8437 15.89958 -27.95851 
19.0587 15.34259 -29.36551 
18.0327 15.36459 -29.41851 
18.2137 14.73859 -30.74351 
17.2257 14.90959 -30.90651 
17.3647 14.18158 -32.14051 
16.3007 14.14659 -32.12151 
16.4387 13.42358 -33.35251 
15.4547 13.55559 -33.50051 
15.5907 12.84259 -34.73651 
14.4867 12.78558 -34.66151 
14.6247 12.03559 -35.88251 
13.5617 12.01259 -35.86951 
13.6607 11.20859 -37.04551 
12.6397 11.25859 -37.10851 
12.6587 10.29558 -38.12451 
11.6357 10.33559 -38.17251 
12.6027 9.169586 -38.97351 
11.5777 9.235583 -39.04751 
12.5467 8.021585 -39.80751 
11.5227 8.102589 -39.90051 
12.4117 6.708585 -40.45151 
11.3887 6.780587 -40.54451 
13.4307 6.63659 -40.35951 
14.4187 6.502584 -40.22651 
15.4017 6.349586 -40.04851 
16.2367 6.952584 -39.74951 
17.2347 6.945588 -39.72651 
18.4277 6.066583 -39.70551 
19.6007 7.32559 -39.03151 
20.5757 7.165588 -38.83451 
21.5047 6.890587 -38.58351 
21.6737 8.261583 -37.97851 
22.4307 6.643586 -38.28651 
22.6397 8.089587 -37.76451 
23.2467 6.858587 -37.98551 
23.5737 7.848583 -37.49051 
24.2507 6.839588 -37.61351 
24.4997 7.578589 -37.23851 
25.2457 6.813586 -37.22851 
25.4417 7.349588 -36.98551 
26.2567 6.816588 -37.01251 
26.2497 8.215584 -36.62251 
27.2527 6.812587 -36.99051 
27.6837 8.642584 -36.28451 
28.4697 7.070586 -36.66951 
28.6077 8.365586 -36.00651 
29.4857 7.999584 -35.62651 
29.5627 9.186588 -34.84251 
30.44069 8.818589 -34.45651 
30.4967 9.951584 -33.62251 
31.4427 9.728588 -33.37951 
31.4107 10.65959 -32.38251 
32.3367 10.41058 -32.10451 
32.3377 11.40159 -31.16851 
33.2967 11.21458 -30.96351 
33.1947 12.01659 -29.80851 
34.1467 11.79959 -29.57551 
34.0797 12.66959 -28.50051 
35.0947 12.45058 -28.27551 
35.04969 13.49859 -27.37951 
35.97269 12.23359 -28.04851 
36.0407 13.37859 -27.26751 
36.9357 12.04459 -27.84651 
37.0997 13.37259 -27.24551 
35.0797 11.55659 -29.32151 
35.9877 11.25759 -29.00251 
36.89569 10.96059 -28.68451 
31.3667 11.58459 -31.35051 
32.2467 12.22558 -30.04051 
31.2707 12.39759 -30.20951 
32.1137 12.96259 -28.81751 
31.1267 13.09959 -28.96951 
32.0157 13.77459 -27.67851 
31.0317 13.89859 -27.81651 
32.03469 14.81359 -26.77751 
30.9727 14.78859 -26.75351 
31.1077 16.06659 -26.10651 
29.9707 15.92159 -25.96051 
30.1787 17.37959 -25.27151 
29.1507 17.38659 -25.35651 
29.2077 18.94159 -25.16851 
28.2117 18.95959 -25.44751 
28.2197 20.41159 -25.29851 
27.1497 17.50459 -25.66851 
27.0097 16.32859 -26.38951 
26.0207 16.46458 -26.52651 
26.9477 15.17959 -27.17751 
25.9007 15.23358 -27.24051 
25.9957 14.41759 -28.36851 
25.0397 14.58359 -28.56751 
25.2497 13.99858 -29.96751 
24.2607 14.12459 -30.11951 
24.4517 13.55459 -31.45651 
23.4657 13.67759 -31.60351 
23.5687 12.89259 -32.75851 
22.5867 13.07359 -32.92951 
22.7217 12.32658 -34.15051 
21.7367 12.46259 -34.30351 
21.8377 11.65859 -35.44751 
20.8457 11.78559 -35.59651 
20.9147 10.89959 -36.69551 
19.8907 10.99358 -36.78451 
20.8517 9.764589 -37.51751 
19.8347 9.849586 -37.61851 
20.7197 8.47359 -38.19651 
19.7367 8.625589 -38.36451 
21.8057 9.554587 -37.30151 
22.7507 9.329587 -37.06151 
23.7237 9.166583 -36.87151 
24.6687 8.940585 -36.63151 
23.8197 10.37559 -36.11751 
24.8087 10.24759 -35.97951 
23.8377 11.42459 -35.20151 
24.8197 11.27559 -35.03851 
24.6877 12.01358 -33.82351 
25.7147 11.96758 -33.76351 
25.5757 12.69259 -32.53151 
26.5907 12.59258 -32.44351 
26.4167 13.24559 -31.13751 
27.4107 13.12659 -30.99151 
27.2337 13.77959 -29.68551 
28.2117 13.60659 -29.51551 
28.0007 14.21858 -28.14151 
29.0267 14.15159 -28.07351 
28.9277 14.93958 -26.92051 
29.9497 14.87459 -26.84651 
28.9437 15.97959 -26.02351 
30.0077 13.96659 -27.89151 
29.1997 13.48459 -29.37251 
28.3767 12.94158 -30.81751 
27.5447 12.39958 -32.21951 
26.7317 11.87558 -33.67251 
25.8137 11.16259 -34.91151 
25.7937 10.10059 -35.82151 
25.6827 8.856587 -36.52451 
30.1407 13.22558 -29.11451 
29.3347 12.74259 -30.59151 
28.4877 12.16859 -31.97751 
27.6737 11.64259 -33.42751 
26.8007 11.02259 -34.75551 
26.7937 9.988584 -35.71051 
27.7637 9.811587 -35.50851 
28.6767 9.512589 -35.18951 
28.6577 10.50159 -34.20351 
29.5577 10.18459 -33.86951 
30.4777 10.91158 -32.64351 
27.7717 10.84059 -34.57051 
28.6117 11.41059 -33.18451 
29.5297 11.13459 -32.87751 
29.4307 11.93659 -31.73151 
30.4187 11.80059 -31.58651 
30.3157 12.58159 -30.42851 
21.8657 10.69359 -36.48251 
22.8417 10.53659 -36.29451 
22.8177 11.50959 -35.29451 
23.7017 12.16058 -33.98351 
24.5907 12.82059 -32.68151 
25.4347 13.40058 -31.29751 
26.2077 13.83859 -29.75551 
27.0157 14.35158 -28.29251 
27.9387 15.06559 -27.05451 
27.9557 16.10658 -26.15251 
28.1577 17.46058 -25.55151 
25.0097 16.56259 -26.65651 
24.0207 16.69659 -26.78751 
22.9967 16.76258 -26.86051 
22.0127 16.90759 -27.01751 
21.9227 15.74758 -27.79051 
20.8967 15.80159 -27.85651 
21.1067 15.23159 -29.23051 
20.3177 15.29758 -29.22351 
20.3017 14.71759 -30.68851 
19.2757 14.77659 -30.76151 
19.4127 14.04559 -31.99051 
18.4227 14.14159 -32.12451 
18.5637 13.44859 -33.36751 
17.5387 13.50159 -33.43651 
17.6777 12.79958 -34.67651 
16.6527 12.84458 -34.73951 
16.7527 12.07759 -35.90851 
15.7277 12.10659 -35.96151 
15.7867 11.22659 -37.05051 
14.7247 11.22159 -37.05251 
15.7707 10.18359 -37.98551 
14.7427 10.23059 -38.04051 
15.7127 9.041585 -38.81751 
14.6897 9.110585 -38.89751 
15.6117 7.79859 -39.53451 
14.5927 7.875584 -39.62851 
16.6387 7.73859 -39.46851 
17.6307 7.612586 -39.34351 
18.6427 7.524587 -39.21451 
17.7577 8.895583 -38.64551 
18.7507 8.768588 -38.51651 
17.8197 10.05859 -37.84451 
18.8397 9.967587 -37.73951 
17.8387 11.11959 -36.92651 
18.8977 11.09958 -36.90451 
18.8377 11.99859 -35.82751 
19.8607 11.91959 -35.74251 
19.7247 12.65859 -34.52351 
20.7477 12.60158 -34.45451 
20.5757 13.27658 -33.15451 
21.5987 13.18659 -33.06951 
21.4957 13.96359 -31.91351 
22.4487 13.78658 -31.69451 
22.3067 14.48759 -30.45451 
23.2577 14.26858 -30.27451 
23.0657 14.85159 -28.87051 
24.0487 14.69059 -28.70351 
23.8847 15.41059 -27.43151 
24.9127 15.36759 -27.38551 
22.9027 15.56759 -27.59851 
22.0987 15.09158 -29.08251 
21.3247 14.63959 -30.61351 
20.4757 14.03759 -31.98751 
19.5857 13.36559 -33.28551 
18.7407 12.78458 -34.66951 
17.8137 12.07159 -35.90551 
16.8127 11.17559 -36.99251 
16.7947 10.11258 -37.90851 
16.7377 8.985586 -38.76051 
33.0997 12.81859 -28.66451 
34.02769 13.56959 -27.45851 
34.2377 14.98759 -26.95351 
35.2997 15.00858 -26.98451 
35.2197 16.19858 -26.85651 
36.2197 16.20159 -26.85851 
35.6707 16.71559 -26.75251 
37.6427 16.47159 -26.54651 
36.8687 18.01759 -26.16451 
37.9197 17.96859 -26.07951 
36.9257 19.12459 -25.34451 
37.9497 19.08658 -25.30951 
37.9287 20.02459 -24.31051 
38.95169 19.96259 -24.24051 
38.9267 20.90759 -23.24851 
39.9107 20.75858 -23.08951 
39.8527 21.64359 -22.02751 
40.83469 21.49159 -21.86551 
39.9567 22.85059 -21.32851 
40.8747 22.57159 -21.04651 
41.1487 24.11759 -20.67751 
42.03869 23.77158 -20.34051 
40.2407 24.41458 -20.99351 
39.31469 24.69759 -21.26551 
39.4477 25.92059 -20.63351 
38.3807 24.93059 -21.53351 
38.5337 26.21359 -20.93751 
37.47169 25.22758 -21.84551 
37.6407 26.52258 -21.28851 
36.5517 25.51859 -22.13851 
36.77869 26.94558 -21.70051 
35.6217 25.74959 -22.40651 
35.9147 27.32359 -22.10951 
34.7057 26.04259 -22.70551 
34.9827 27.56059 -22.37751 
33.7757 26.27458 -22.97951 
34.03469 27.78158 -22.61451 
32.8367 26.50858 -23.24651 
33.0987 28.03459 -22.84351 
32.1277 28.19659 -23.02951 
32.2257 29.38059 -22.31651 
31.2487 29.54159 -22.49651 
31.2837 30.60459 -21.64251 
30.3067 29.77159 -22.74051 
30.3587 30.87059 -21.92251 
29.3477 29.96859 -22.94051 
29.4087 31.08059 -22.14651 
28.4607 31.29759 -22.37051 
28.4927 32.35659 -21.52151 
27.5407 32.56059 -21.73651 
27.5647 33.57259 -20.83051 
26.5237 32.64558 -21.82651 
26.5057 33.61959 -20.87051 
25.4617 32.65559 -21.83151 
25.4797 33.66659 -20.91851 
24.4217 33.63359 -20.87951 
25.4237 34.54459 -19.86151 
24.3207 34.47159 -19.76851 
25.3627 35.40659 -18.78851 
24.2177 35.30958 -18.65151 
25.3027 36.31059 -17.75151 
24.2007 36.24958 -17.66251 
25.3227 37.35359 -16.86351 
24.1347 37.16958 -16.63251 
25.2207 38.18959 -15.74151 
24.0697 38.07059 -15.58651 
25.1187 39.02159 -14.61951 
24.0587 38.98459 -14.58351 
25.1447 39.98759 -13.69351 
23.9927 39.90259 -13.56251 
25.1287 40.92059 -12.71451 
23.9797 40.80159 -12.55851 
24.9857 41.70658 -11.53551 
23.8827 41.62458 -11.43051 
24.8897 42.47459 -10.37551 
23.7877 42.39758 -10.27551 
24.7537 43.19358 -9.14851 
23.6507 43.12358 -9.04951 
24.6167 43.90458 -7.91451 
23.5117 43.85758 -7.827509 
24.4367 44.59659 -6.62751 
23.3757 44.58059 -6.600509 
24.3027 45.31259 -5.392509 
23.2417 45.29958 -5.368509 
24.1287 45.91859 -4.06151 
23.0227 45.87658 -3.96951 
23.2067 46.39459 -2.56951 
22.0067 46.15558 -3.02451 
21.6877 46.45559 -1.70651 
20.5277 46.21058 -2.214509 
20.1717 46.50859 -0.8415096 
18.9697 46.26558 -1.29151 
18.5997 46.44958 0.01249043 
17.4617 46.25458 -0.4105095 
17.0357 46.36359 0.8664904 
15.8287 46.12959 0.4184903 
15.4077 46.21058 1.70349 
14.2067 45.94358 1.25749 
13.7837 46.03558 2.54149 
12.5797 45.77658 2.09849 
12.1017 45.76159 3.363491 
10.4187 45.49059 4.18849 
38.7647 27.68259 -20.49151 
37.8587 27.98159 -20.81651 
36.9627 28.31959 -21.15351 
36.0407 28.57259 -21.44551 
35.0967 28.79059 -21.68051 
34.1327 28.97359 -21.89551 
35.1157 29.80059 -20.80151 
34.1437 29.98359 -20.97851 
34.2747 31.23859 -20.32551 
33.2577 31.31559 -20.40751 
33.4667 32.72758 -19.93251 
32.4407 32.78559 -19.98451 
32.61369 34.10958 -19.42151 
31.5647 34.14658 -19.45851 
31.6927 35.36659 -18.77551 
30.6367 35.39359 -18.79951 
32.6917 35.25758 -18.66051 
33.6067 33.98859 -19.29651 
34.4627 32.60459 -19.80751 
35.2717 31.11158 -20.19951 
36.0927 29.65058 -20.63651 
35.43769 32.43758 -19.62551 
34.5577 33.78358 -19.07851 
34.6067 34.86758 -18.24951 
33.6587 35.08459 -18.48051 
35.5507 34.64459 -18.01251 
35.4987 33.54859 -18.82851 
33.1537 29.12859 -22.06751 
33.17369 30.15959 -21.16551 
32.2527 30.43459 -21.45351 
32.3087 31.53559 -20.63851 
31.3707 31.77559 -20.89951 
31.4867 32.98058 -20.19251 
30.4797 33.09459 -20.31851 
30.5747 34.26459 -19.57951 
29.5537 34.34858 -19.66451 
29.6097 35.43859 -18.84251 
28.5197 35.42459 -18.81651 
27.5057 36.48859 -17.95551 
26.4197 37.48059 -16.99651 
26.3667 38.28959 -15.88551 
26.2697 39.08759 -14.73951 
26.2057 40.00758 -13.72251 
26.1887 40.93859 -12.73851 
26.0887 41.78158 -11.63451 
25.9887 42.58459 -10.49651 
25.8507 43.28658 -9.257509 
25.7197 43.97658 -8.01751 
25.5427 44.63259 -6.709509 
25.3667 45.31659 -5.41151 
25.1917 45.91759 -4.07851 
24.9357 46.41958 -2.59651 
24.2927 46.49559 -2.17151 
22.8907 46.68959 -1.252509 
21.3167 46.67959 -0.4135095 
19.8027 46.68959 0.4624906 
18.2357 46.60458 1.314491 
16.6117 46.45159 2.149491 
14.9237 46.21159 2.964491 
26.4067 36.40059 -17.85651 
27.5037 35.40259 -18.78151 
27.5107 34.48959 -19.81451 
28.5317 34.42559 -19.74251 
28.5347 33.43459 -20.67951 
29.4667 32.18559 -21.33551 
30.4167 31.97559 -21.11451 
29.4997 33.25959 -20.49451 
26.4937 34.54359 -19.85751 
26.4307 35.43258 -18.81051 
39.0417 23.13758 -21.62451 
38.1147 23.37959 -21.91151 
37.1787 24.56859 -22.14351 
38.8737 21.79959 -22.20351 
37.9237 22.01959 -22.42851 
37.9087 20.98858 -23.33751 
36.9797 22.24258 -22.67051 
36.8587 21.00859 -23.37951 
36.0617 22.52859 -22.94951 
35.8377 21.07958 -23.46251 
35.1177 22.75658 -23.19551 
34.8497 21.21159 -23.60651 
34.2077 21.77258 -23.71051 
33.2157 20.36159 -24.11951 
33.2117 21.79158 -23.98851 
32.1997 21.79158 -24.31351 
32.1977 23.20959 -23.83151 
31.2087 23.22458 -24.00551 
31.1977 24.64959 -23.73651 
30.1977 24.65959 -23.98551 
30.2037 26.10458 -23.78651 
29.1797 26.09158 -24.07151 
29.1827 27.53459 -23.86151 
28.0947 27.46059 -24.12051 
29.1787 28.64058 -23.51151 
28.2237 28.84059 -23.70351 
28.3407 30.06959 -23.06051 
27.3517 30.20059 -23.19151 
27.4507 31.40159 -22.49451 
26.4647 31.52359 -22.61351 
30.1677 28.50559 -23.37851 
30.1707 27.51159 -23.68351 
30.8977 26.86459 -23.60951 
31.1897 26.08459 -23.60151 
31.8807 26.71558 -23.44551 
32.1827 26.07159 -23.44751 
31.1507 28.35659 -23.21651 
32.1937 24.63859 -23.58751 
33.2017 23.20258 -23.59051 
33.19669 24.63259 -23.34451 
34.2077 23.19859 -23.35251 
34.1967 24.62359 -23.08151 
35.2037 23.18358 -23.07851 
35.1887 24.60459 -22.80051 
36.2137 23.17759 -22.73451 
36.2027 24.60059 -22.46151 
37.21469 23.16058 -22.34651 
36.8657 20.01759 -24.30351 
35.8027 20.00558 -24.28651 
35.86069 19.10859 -25.32551 
34.7227 18.96559 -25.18451 
34.7387 19.98559 -24.25851 
33.6597 18.92158 -25.11051 
32.6257 20.00058 -24.33051 
31.2047 20.36358 -24.67551 
31.2077 21.80459 -24.48251 
30.1967 21.80259 -24.68451 
30.1917 23.21558 -24.18551 
29.1957 23.22558 -24.33151 
29.2207 24.69759 -24.12951 
28.1937 24.66559 -24.24251 
28.2117 26.11858 -24.31351 
27.1857 26.10359 -24.35851 
26.9967 27.51458 -24.27251 
26.1787 27.54258 -24.35051 
26.2017 29.02958 -24.04751 
25.1737 27.53959 -24.36051 
25.1887 29.05858 -24.07351 
24.1737 27.53059 -24.33851 
24.1597 29.05059 -24.00751 
23.1757 27.51859 -24.20451 
23.1647 28.95959 -23.98451 
22.1737 27.51759 -23.98651 
22.0157 28.88559 -23.71451 
21.5397 27.19959 -23.99651 
20.6427 28.55959 -23.43851 
23.1827 26.08059 -24.20851 
24.1897 24.65259 -24.34851 
35.8067 17.99358 -26.13351 
34.7487 17.96459 -26.09551 
33.6047 17.82259 -25.95751 
32.5197 18.77859 -24.98051 
32.21569 17.54858 -25.80651 
31.2497 17.47259 -25.49051 
32.3307 16.37758 -26.42451 
31.2077 18.94458 -24.72251 
30.2167 18.93759 -24.84551 
30.2057 20.37859 -24.94451 
29.2047 20.38459 -25.18151 
28.2027 21.81859 -24.97051 
28.1997 23.23759 -24.38551 
27.1947 23.23659 -24.39351 
27.1947 24.66559 -24.26251 
29.2047 21.81859 -24.85651 
33.0387 13.70259 -27.59651 
33.0967 14.83358 -26.79851 
33.21469 16.18559 -26.61951 
34.5727 16.63358 -26.68251 
13.5997 7.984586 -39.72651 
13.6637 9.156585 -38.95051 
13.7217 10.28059 -38.10151 
25.5787 19.69859 -25.93251 
24.7737 21.20358 -25.55751 
24.5607 19.77659 -26.03551 
23.7477 21.27059 -25.63051 
23.1997 20.40859 -26.06151 
22.2057 21.84258 -25.72951 
22.2087 20.42858 -26.23151 
21.2117 21.85959 -26.00451 
21.2037 20.42858 -26.45551 
20.1917 21.85158 -26.31051 
20.2077 20.43758 -26.60051 
19.1997 21.86459 -26.47451 
19.2057 20.43959 -26.73151 
18.2037 21.87058 -26.51851 
18.1987 20.43859 -26.92851 
17.1967 21.86058 -26.59051 
17.2027 20.44259 -26.97251 
16.1947 21.86759 -26.73751 
16.2047 20.44459 -26.99351 
15.1957 21.87159 -26.86251 
15.2007 20.43959 -27.08251 
14.2017 20.44158 -27.10051 
15.1807 19.04259 -27.31851 
14.1947 19.18859 -27.47251 
14.0167 17.80959 -27.97151 
13.2087 19.32558 -27.60051 
13.0267 17.93858 -28.08951 
12.1837 19.39958 -27.69351 
11.9707 17.95658 -28.15151 
11.1587 19.46659 -27.76951 
10.9887 18.08259 -28.24851 
10.1387 19.50858 -27.77751 
9.934696 18.06159 -28.20651 
9.077697 19.49659 -27.76451 
8.792697 17.89959 -28.04351 
7.935697 19.33659 -27.60151 
7.481697 17.45759 -27.66651 
6.796697 19.16459 -27.41351 
6.421696 17.44359 -27.64851 
5.651698 19.01559 -27.28751 
5.438696 17.57759 -27.76551 
4.629698 19.06359 -27.30951 
4.416697 17.64359 -27.84151 
3.604697 19.12358 -27.36451 
3.393697 17.70458 -27.89051 
2.354696 19.01258 -27.38351 
2.270697 17.62359 -27.90551 
1.205698 18.95758 -27.52151 
1.210697 17.55059 -27.92151 
0.2066977 18.96258 -27.65051 
0.2106968 17.55758 -27.94951 
-0.7953029 18.96659 -27.77651 
-0.7883031 17.55159 -28.04251 
-1.790304 17.54659 -27.94651 
-1.185304 15.98459 -28.09351 
-2.250303 15.97359 -28.08351 
-1.517303 14.31759 -28.35951 
-2.538303 14.37659 -28.40651 
-1.768304 12.80259 -28.78251 
-2.827303 12.78058 -28.75951 
-1.781303 11.73559 -29.67651 
-3.003303 11.41959 -29.34751 
-2.745302 10.90359 -30.82951 
-4.034303 10.40059 -30.31651 
-3.032302 10.45158 -31.71051 
-5.270302 9.077586 -31.66951 
-4.777303 9.06159 -32.67551 
-6.068302 7.731586 -32.67951 
-5.564304 7.703588 -33.68351 
-6.806303 6.323584 -33.66251 
-6.417303 6.286584 -34.66151 
-7.344304 4.943587 -34.67451 
-6.860303 4.921585 -35.69451 
-7.588303 3.511585 -35.67051 
-7.068303 3.465585 -36.66951 
-7.489303 2.073586 -36.69151 
-7.066304 2.024584 -37.66951 
-7.359303 0.6395876 -37.69351 
-6.843302 0.5935878 -38.70851 
-7.110303 -0.8114129 -38.68951 
-6.321303 -0.8724108 -39.69851 
-6.542303 -2.282411 -39.66851 
-5.726304 -1.596414 -40.29651 
-5.720303 -2.994411 -40.41851 
-4.740304 -1.538411 -40.95251 
-4.732303 -2.938412 -41.06351 
-3.733303 -2.903417 -41.45851 
-3.700303 -4.29441 -41.51051 
-2.729302 -4.278414 -41.84051 
-2.713304 -5.68641 -41.81551 
-1.727304 -5.650416 -42.22551 
-1.711303 -7.047415 -42.32451 
-0.7393025 -7.020414 -42.65451 
-0.7393025 -8.431413 -42.66251 
0.2646968 -8.404411 -42.93351 
0.2856962 -9.813413 -42.88251 
1.296697 -9.786412 -43.10551 
1.296697 -11.21741 -42.87251 
2.305698 -11.20041 -42.97451 
2.307696 -12.64241 -42.61351 
3.308697 -11.19241 -42.95151 
3.306696 -12.65341 -42.53451 
4.311697 -12.62141 -42.73551 
4.323697 -14.06341 -42.35851 
5.314697 -12.61541 -42.73751 
5.321696 -14.06442 -42.38751 
6.320696 -14.04241 -42.48651 
5.327696 -15.45142 -42.28751 
6.329697 -15.46542 -42.22151 
5.331697 -16.88741 -42.08951 
6.333698 -16.87841 -42.04751 
5.340697 -18.31141 -41.79151 
6.344697 -18.31242 -41.83151 
6.348698 -19.77441 -41.35651 
7.349697 -19.74341 -41.42651 
7.354697 -21.19141 -40.89951 
8.348697 -19.75741 -41.15051 
8.353697 -21.19041 -40.91351 
9.367697 -19.79341 -40.84651 
9.368697 -21.21441 -40.70951 
10.3547 -19.79441 -40.66851 
10.3627 -21.22442 -40.41051 
10.3457 -18.38541 -40.65751 
10.3417 -16.98041 -40.66851 
10.3337 -15.53041 -41.17551 
10.3297 -14.06341 -41.95851 
10.3207 -12.63241 -42.20851 
10.3037 -11.22241 -42.17551 
10.3137 -9.817414 -42.26251 
10.3027 -8.401416 -42.37151 
10.3007 -7.002413 -42.27951 
9.296697 -6.997414 -42.38251 
9.294697 -5.595416 -42.40951 
8.294697 -6.993413 -42.49351 
8.308697 -5.604416 -42.55651 
7.296697 -6.996416 -42.52351 
7.298697 -5.632415 -42.65751 
6.292697 -6.987415 -42.64651 
6.286697 -5.587414 -42.64651 
5.293697 -6.984413 -42.78351 
5.285697 -5.591415 -42.63851 
4.286697 -5.58541 -42.76351 
5.275697 -4.146412 -42.96751 
4.277697 -4.159413 -42.98051 
4.268696 -2.732411 -43.26851 
3.265697 -2.745412 -43.16551 
3.258698 -1.337416 -43.15451 
2.261696 -2.747416 -43.17451 
2.267696 -1.348413 -43.09551 
1.263697 -1.357414 -42.99651 
2.249697 0.04258752 -42.78651 
1.242697 0.03358722 -42.67751 
2.237696 1.433589 -42.43151 
1.249697 1.410589 -42.37751 
2.237696 2.805583 -42.03051 
1.248697 2.776586 -41.86151 
2.242697 4.185587 -41.61751 
1.245696 4.152588 -41.34551 
1.644697 5.252585 -41.05151 
0.5116966 5.066588 -40.86251 
0.6816965 6.451584 -40.27651 
-0.451304 6.266586 -40.09451 
-0.4053023 7.431589 -39.28951 
-1.631303 7.10959 -38.96651 
-1.659304 8.106589 -37.97051 
-2.871303 6.671585 -38.52251 
-2.835304 7.588588 -37.62751 
-4.387302 6.136589 -37.67451 
-3.770303 7.55959 -36.69051 
-5.161304 6.205588 -36.67951 
-4.533304 7.611588 -35.68551 
-5.819304 6.274589 -35.68751 
-5.061302 7.663585 -34.69251 
-6.210303 4.865587 -36.69651 
-6.436303 3.420584 -37.68151 
-6.329304 1.977585 -38.70751 
-6.046303 0.5245879 -39.69251 
-5.715303 -0.2034158 -40.14851 
-4.727304 -0.1494139 -40.79851 
-3.749304 -0.1054108 -41.22051 
-3.734304 -1.49741 -41.45351 
-2.751304 -0.07141382 -41.61251 
-2.736304 -1.463413 -41.84051 
-1.741303 -0.04241616 -41.97051 
-1.753302 -1.432411 -42.14051 
-0.7463023 -0.01541525 -42.24451 
-0.7433034 -1.404412 -42.49951 
0.2516974 0.01158565 -42.50851 
0.2716966 -1.377411 -42.83551 
0.2496969 1.394585 -42.24651 
0.2456959 2.765589 -41.73751 
0.2406966 4.145585 -41.11951 
-0.6823037 4.835583 -40.65451 
-1.735304 5.896583 -39.74451 
-0.7473025 1.370586 -41.98251 
-0.7523037 2.746589 -41.60051 
-0.7593036 4.12859 -40.98251 
-1.754303 4.092589 -40.70251 
-1.869304 4.591584 -40.42551 
-2.759304 4.072584 -40.33951 
-2.932303 5.533584 -39.36551 
-3.748303 4.019588 -39.80751 
-3.742304 5.367585 -38.90951 
-4.712304 3.937587 -39.12451 
-4.708303 5.280584 -38.11451 
-5.530303 4.78559 -37.67451 
-1.744304 1.344584 -41.72051 
-1.740303 2.710588 -41.31551 
-2.752304 1.317583 -41.34951 
-2.766304 2.694584 -40.86651 
-3.744302 1.279585 -40.95151 
-3.730303 2.641588 -40.53951 
-4.737303 1.231588 -40.42951 
-4.718304 2.58559 -39.89351 
-5.700303 1.160584 -39.74751 
-5.548304 3.359586 -38.70451 
-2.740303 -2.870411 -41.85551 
-1.732303 -4.243411 -42.23551 
-0.7333029 -5.615413 -42.62551 
0.2546962 -6.998412 -42.93651 
1.279697 -8.379415 -43.14551 
2.293697 -8.373417 -43.12651 
2.298696 -9.781413 -43.11651 
3.295697 -8.371412 -43.08151 
3.298696 -9.788416 -43.02551 
4.295697 -8.370415 -43.03651 
4.302697 -9.781413 -43.00951 
5.301697 -9.770415 -43.08151 
5.307697 -11.18641 -42.98051 
6.304696 -9.76941 -43.04251 
6.306697 -11.18042 -42.96251 
7.305696 -9.777411 -42.88451 
7.308696 -11.18542 -42.84051 
8.305696 -9.785414 -42.72551 
8.306697 -11.19342 -42.68851 
9.309697 -9.80141 -42.49551 
9.312696 -11.20842 -42.46351 
9.301697 -8.393414 -42.49851 
8.295697 -8.380413 -42.70251 
7.293696 -8.375414 -42.82051 
6.298697 -8.373417 -42.90351 
4.308697 -11.18841 -42.97251 
6.316697 -12.61141 -42.75151 
7.319697 -12.61641 -42.62451 
7.327697 -14.04541 -42.33651 
8.324697 -12.63142 -42.35851 
8.341697 -14.06741 -42.12951 
9.333697 -12.63241 -42.38451 
9.332697 -14.06541 -42.11851 
7.339696 -15.47942 -42.11851 
7.337697 -16.89941 -41.82151 
7.343697 -18.31641 -41.69051 
8.347696 -18.34241 -41.31351 
9.364697 -18.38441 -40.85351 
9.365697 -16.96242 -41.12151 
9.353697 -15.50741 -41.74551 
8.346697 -16.91841 -41.58651 
8.348697 -15.50041 -41.87051 
-1.744304 -2.832413 -42.25251 
-0.7103029 -4.203416 -42.68251 
0.2756976 -5.579412 -43.00051 
1.283696 -6.97241 -43.12251 
2.288697 -6.969415 -43.09551 
3.288697 -6.976411 -42.98151 
-0.7433034 -2.799414 -42.63651 
0.2666973 -2.769411 -42.99651 
1.263697 -2.752416 -43.14451 
1.269696 -4.158415 -43.15151 
2.272697 -4.155412 -43.15351 
1.276696 -5.567417 -43.14151 
2.282698 -5.564414 -43.12151 
0.2556965 -4.181415 -42.93151 
3.273698 -4.163414 -43.02051 
3.281698 -5.575411 -42.91651 
4.290696 -6.979414 -42.88251 
5.296696 -8.367412 -43.02451 
9.278697 -4.157416 -42.73251 
9.278697 -2.734415 -43.02451 
9.272696 -1.325414 -43.04151 
9.270697 0.07759035 -42.93151 
9.247697 1.467586 -42.84851 
9.240697 2.848588 -42.59051 
8.253696 1.472585 -42.87951 
8.246696 2.853587 -42.61851 
7.254696 1.471586 -42.89951 
7.249697 2.857588 -42.63951 
6.245697 2.867587 -42.66951 
7.110697 4.300587 -42.11751 
5.913697 4.34459 -42.09951 
6.047698 5.650588 -41.43251 
4.988697 5.619586 -41.40151 
5.122697 6.925591 -40.74051 
4.015697 6.855585 -40.68151 
4.116697 8.049585 -39.88751 
3.015697 7.939585 -39.79051 
3.036696 9.004585 -38.87051 
1.894698 8.834585 -38.70651 
2.975697 9.908587 -37.78851 
1.833696 9.74159 -37.62151 
2.840696 10.65659 -36.54851 
1.702696 10.47958 -36.37351 
2.629697 11.23358 -35.13251 
1.448696 10.98259 -34.88051 
2.372697 11.72759 -33.65751 
1.236698 11.55259 -33.48051 
2.080698 12.14859 -32.09351 
0.904696 11.90159 -31.83951 
1.797697 12.54759 -30.52451 
0.6226972 12.28759 -30.25351 
1.532696 13.07559 -29.05551 
0.3956966 12.90559 -28.87751 
0.5626976 14.28559 -28.34151 
-0.4933029 14.25859 -28.29951 
-0.04730374 16.15559 -28.27551 
-0.7823035 16.11459 -28.13451 
1.016697 16.15559 -28.24551 
1.664696 14.37359 -28.42451 
2.723698 13.28859 -29.27551 
2.975697 12.78458 -30.77551 
3.259696 12.38259 -32.34351 
3.517697 11.88859 -33.82451 
3.849696 11.41158 -35.34051 
3.940696 10.76359 -36.64351 
4.078697 10.00359 -37.87851 
4.140697 9.092585 -38.95551 
5.180696 8.056588 -39.88751 
6.187696 6.940588 -40.73951 
7.113697 5.671583 -41.44551 
8.142696 4.304588 -42.10851 
1.998696 16.03459 -28.16651 
2.771696 14.44358 -28.47951 
3.906697 13.51459 -29.50751 
4.145697 13.06459 -31.04251 
4.402697 12.56759 -32.51951 
4.653696 12.07159 -33.99951 
4.907698 11.58059 -35.47851 
5.038697 10.85459 -36.73051 
5.140697 10.02359 -37.89051 
5.159697 9.059586 -38.90251 
6.244697 8.071587 -39.89151 
7.247696 6.984584 -40.78851 
8.181697 5.682588 -41.44551 
9.075697 4.322588 -42.05751 
3.062697 16.04759 -28.16951 
3.833696 14.45559 -28.48551 
4.898697 14.45658 -28.48451 
5.068697 13.68359 -29.70851 
5.959697 14.46959 -28.49551 
6.215697 13.96359 -29.97751 
7.103696 14.62459 -28.65151 
7.287697 14.12859 -30.12651 
8.206697 14.72358 -28.75451 
8.456697 14.23158 -30.25151 
9.341697 14.90758 -28.94851 
9.636697 14.48659 -30.50951 
10.4947 15.03558 -29.06651 
10.7337 14.57658 -30.59851 
11.5927 15.12059 -29.15951 
11.8377 14.66759 -30.68951 
12.6867 15.22359 -29.27051 
12.9407 14.73159 -30.77351 
13.7467 15.27559 -29.32351 
14.0017 14.76958 -30.79051 
14.8517 15.39959 -29.42551 
15.0617 14.79859 -30.80751 
15.9157 15.42658 -29.43451 
16.1257 14.84859 -30.82951 
17.2307 15.39259 -29.33951 
